277.2766	24.6665	1
277.2715	24.6235	1
277.2507	24.5921	1
277.2243	24.5786	1
277.1763	24.5777	1
277.1600	24.5564	1
277.1417	24.5851	1
277.1531	24.6684	1
277.2766	24.6665	1
277.2766	24.6665	2
277.1531	24.6684	2
277.0900	24.7600	2
277.1929	24.7728	2
277.2264	24.7664	2
277.2679	24.7253	2
277.2780	24.6980	2
277.2766	24.6665	2
277.1417	24.5851	3
277.1600	24.5564	3
277.1177	24.5197	3
277.0766	24.5025	3
277.0141	24.5145	3
276.9843	24.5438	3
277.0073	24.6006	3
277.1417	24.5851	3
276.9662	24.7409	4
276.9644	24.7410	4
276.9992	24.7620	4
277.0287	24.7599	4
277.0520	24.7440	4
277.0900	24.7600	4
277.1531	24.6684	4
277.1417	24.5851	4
277.0073	24.6006	4
276.9662	24.7409	4
276.9662	24.7409	5
277.0073	24.6006	5
276.9843	24.5438	5
276.9713	24.5690	5
276.9266	24.5541	5
276.8910	24.5604	5
276.8700	24.5808	5
276.8595	24.6129	5
276.8604	24.6547	5
276.8770	24.6898	5
276.9172	24.7231	5
276.9644	24.7410	5
276.9662	24.7409	5
277.4064	24.3750	6
277.4178	24.5043	6
277.5002	24.4810	6
277.5198	24.4593	6
277.5245	24.4323	6
277.5132	24.4047	6
277.4846	24.3799	6
277.4064	24.3750	6
277.4178	24.5043	7
277.4064	24.3750	7
277.3057	24.3866	7
277.3164	24.4924	7
277.3701	24.4869	7
277.4178	24.5043	7
277.3164	24.4924	8
277.3057	24.3866	8
277.2399	24.3936	8
277.1883	24.4183	8
277.1668	24.4413	8
277.1620	24.4686	8
277.1753	24.4964	8
277.2048	24.5108	8
277.2678	24.5114	8
277.3164	24.4924	8
277.4825	24.6360	9
277.5044	24.6162	9
277.5108	24.5879	9
277.4948	24.5384	9
277.4785	24.5180	9
277.4565	24.5080	9
277.4339	24.5079	9
277.3586	24.5429	9
277.3464	24.5805	9
277.3676	24.6175	9
277.4420	24.6410	9
277.4825	24.6360	9
277.6152	24.6306	10
277.6076	24.7255	10
277.7028	24.7204	10
277.7265	24.7040	10
277.7359	24.6793	10
277.7287	24.6535	10
277.7071	24.6359	10
277.6698	24.6282	10
277.6152	24.6306	10
277.6076	24.7255	11
277.6152	24.6306	11
277.5759	24.6223	11
277.5383	24.6240	11
277.5146	24.6406	11
277.5051	24.6653	11
277.5110	24.6889	11
277.5285	24.7062	11
277.6076	24.7255	11
279.8470	25.2117	12
279.7822	25.1093	12
279.7101	25.1604	12
279.7270	25.2417	12
279.7548	25.2587	12
279.8470	25.2117	12
279.6243	25.0743	13
279.6592	25.1237	13
279.7101	25.1604	13
279.7822	25.1093	13
279.7087	25.0213	13
279.6243	25.0743	13
279.7087	25.0213	14
279.6638	24.9749	14
279.6073	24.9365	14
279.5612	24.9902	14
279.5925	25.0412	14
279.6243	25.0743	14
279.7087	25.0213	14
279.7308	25.3216	15
279.7305	25.3216	15
279.7305	25.3221	15
279.7308	25.3216	15
279.7308	25.3216	15
279.7314	25.3210	15
279.7311	25.3210	15
279.7311	25.3207	15
279.7314	25.3210	15
279.7569	25.3477	15
279.7524	25.3531	15
279.7605	25.3499	15
279.7952	25.3391	15
279.8992	25.3117	15
279.8470	25.2117	15
279.7548	25.2587	15
279.7270	25.2417	15
279.6894	25.2513	15
279.7308	25.3216	15
279.7952	25.3391	16
279.7605	25.3499	16
279.7691	25.3860	16
279.7946	25.4112	16
279.8019	25.4352	16
279.9256	25.4033	16
279.8992	25.3117	16
279.7952	25.3391	16
279.6310	25.1595	17
279.6310	25.1589	17
279.6304	25.1589	17
279.6310	25.1595	17
279.6310	25.1595	17
279.6459	25.1629	17
279.6504	25.1694	17
279.6343	25.1658	17
279.6572	25.1785	17
279.6635	25.2108	17
279.6637	25.2108	17
279.6638	25.2111	17
279.6635	25.2108	17
279.6894	25.2513	17
279.7270	25.2417	17
279.7101	25.1604	17
279.6592	25.1237	17
279.6310	25.1500	17
279.6447	25.1589	17
279.6310	25.1595	17
279.6073	24.9365	18
279.5088	24.8686	18
279.4629	24.9300	18
279.4785	24.9742	18
279.4846	24.9754	18
279.5612	24.9902	18
279.6073	24.9365	18
279.8225	25.5178	19
279.8203	25.5067	19
279.8098	25.5029	19
279.8184	25.4937	19
279.8245	25.5175	19
279.9506	25.5001	19
279.9256	25.4033	19
279.8019	25.4352	19
279.8240	25.4855	19
279.8193	25.4934	19
279.7907	25.4291	19
279.8041	25.4682	19
279.8021	25.4952	19
279.8137	25.5190	19
279.8225	25.5178	19
279.6592	25.1237	20
279.6243	25.0743	20
279.5925	25.0412	20
279.5436	25.0697	20
279.5467	25.0727	20
279.5568	25.0761	20
279.5568	25.0780	20
279.5574	25.0766	20
279.5571	25.0766	20
279.5571	25.0761	20
279.5574	25.0766	20
279.5643	25.0833	20
279.5643	25.0831	20
279.5646	25.0831	20
279.5643	25.0833	20
279.5853	25.1128	20
279.5903	25.1111	20
279.5819	25.0987	20
279.5981	25.1176	20
279.5864	25.1028	20
279.6007	25.1062	20
279.6291	25.1370	20
279.6310	25.1500	20
279.6592	25.1237	20
279.5013	25.0191	21
279.5016	25.0188	21
279.5016	25.0191	21
279.5013	25.0191	21
279.5013	25.0191	21
279.5069	25.0248	21
279.5072	25.0245	21
279.5072	25.0248	21
279.5069	25.0248	21
279.5130	25.0442	21
279.5133	25.0440	21
279.5133	25.0442	21
279.5130	25.0442	21
279.5436	25.0697	21
279.5925	25.0412	21
279.5612	24.9902	21
279.4846	24.9754	21
279.4988	24.9861	21
279.4923	25.0137	21
279.5013	25.0191	21
279.9562	25.5974	22
279.9506	25.5001	22
279.8245	25.5175	22
279.8225	25.5178	22
279.8137	25.5190	22
279.8373	25.5379	22
279.8516	25.6001	22
279.9562	25.5974	22
279.4344	24.9578	23
279.4344	24.9575	23
279.4341	24.9575	23
279.4341	24.9578	23
279.4344	24.9578	23
279.4485	24.9716	23
279.4482	24.9713	23
279.4482	24.9716	23
279.4485	24.9716	23
279.4344	24.9575	23
279.4347	24.9575	23
279.4347	24.9578	23
279.4344	24.9578	23
279.4485	24.9716	23
279.4547	24.9808	23
279.4785	24.9742	23
279.4629	24.9300	23
279.5088	24.8686	23
279.4133	24.8062	23
279.3637	24.8711	23
279.3518	24.8889	23
279.3999	24.9178	23
279.4020	24.9477	23
279.4121	24.9508	23
279.4087	24.9603	23
279.4154	24.9505	23
279.4344	24.9575	23
279.9562	25.5974	24
279.8516	25.6001	24
279.8487	25.6758	24
279.9609	25.7385	24
279.9562	25.5974	24
279.3637	24.8711	25
279.4133	24.8062	25
279.3192	24.7410	25
279.2546	24.8199	25
279.2668	24.8221	25
279.2977	24.8593	25
279.3518	24.8889	25
279.3637	24.8711	25
279.2083	24.6827	26
279.2082	24.6827	26
279.1660	24.7667	26
279.1986	24.7837	26
279.2191	24.8046	26
279.2546	24.8199	26
279.3192	24.7410	26
279.2083	24.6827	26
279.9609	25.7385	27
279.8487	25.6758	27
279.8529	25.7240	27
279.8458	25.7357	27
279.8581	25.7462	27
279.8584	25.7462	27
279.8584	25.7459	27
279.8605	25.7459	27
279.8605	25.7456	27
279.8611	25.7456	27
279.8611	25.7459	27
279.8623	25.7459	27
279.8623	25.7456	27
279.8638	25.7456	27
279.8623	25.7459	27
279.8623	25.7462	27
279.8611	25.7462	27
279.8611	25.7459	27
279.8605	25.7459	27
279.8605	25.7462	27
279.8584	25.7462	27
279.8584	25.7464	27
279.8581	25.7464	27
279.8581	25.7462	27
279.8528	25.7565	27
279.8705	25.7637	27
279.8721	25.7816	27
279.9609	25.7902	27
279.9609	25.7385	27
279.8814	25.8571	28
279.9625	25.8261	28
279.9609	25.7902	28
279.8721	25.7816	28
279.8814	25.8571	28
279.0677	24.7702	29
279.0962	24.7629	29
279.1152	24.7489	29
279.1660	24.7667	29
279.2082	24.6827	29
279.1053	24.6460	29
279.0534	24.7633	29
279.0677	24.7702	29
279.8818	25.9592	30
279.9573	25.9525	30
279.9507	25.8912	30
279.9625	25.8261	30
279.8814	25.8571	30
279.8757	25.8991	30
279.8818	25.9592	30
278.9857	24.7292	31
278.9851	24.7300	31
278.9857	24.7300	31
278.9857	24.7292	31
279.0210	24.7438	31
279.0216	24.7444	31
279.0225	24.7444	31
279.0210	24.7438	31
278.9807	24.7298	31
278.9804	24.7298	31
278.9804	24.7289	31
278.9807	24.7298	31
278.9857	24.7292	31
278.9893	24.7230	31
279.0080	24.7333	31
279.0083	24.7428	31
279.0210	24.7438	31
279.0246	24.7422	31
279.0281	24.7468	31
279.0243	24.7490	31
279.0284	24.7503	31
279.0284	24.7479	31
279.0305	24.7512	31
279.0326	24.7471	31
279.0534	24.7633	31
279.1053	24.6460	31
279.0056	24.6097	31
278.9578	24.7243	31
278.9730	24.7352	31
278.9816	24.7336	31
278.9801	24.7327	31
278.9783	24.7333	31
278.9777	24.7322	31
278.9777	24.7341	31
278.9768	24.7344	31
278.9765	24.7333	31
278.9724	24.7325	31
278.9715	24.7314	31
278.9724	24.7284	31
278.9756	24.7270	31
278.9768	24.7289	31
278.9756	24.7292	31
278.9774	24.7314	31
278.9777	24.7295	31
278.9783	24.7303	31
278.9801	24.7298	31
278.9804	24.7308	31
278.9807	24.7298	31
279.8818	25.9592	32
279.8879	26.0507	32
279.9595	26.0391	32
279.9573	25.9525	32
279.8818	25.9592	32
279.8818	25.9592	32
278.9569	24.7246	33
278.9578	24.7243	33
279.0056	24.6097	33
278.9027	24.5769	33
278.8759	24.6546	33
278.8708	24.6706	33
278.8861	24.6949	33
278.8923	24.6883	33
278.9116	24.6921	33
278.9128	24.6964	33
278.9092	24.6975	33
278.9095	24.7018	33
278.8933	24.7018	33
278.8962	24.7039	33
278.9184	24.7121	33
278.9083	24.7029	33
278.9113	24.7018	33
278.9107	24.6975	33
278.9133	24.6994	33
278.9134	24.6910	33
278.9225	24.6896	33
278.9297	24.7121	33
278.9569	24.7246	33
279.9682	26.1416	34
279.9595	26.0391	34
279.8879	26.0507	34
279.8982	26.1407	34
279.9682	26.1416	34
278.8759	24.6546	35
278.9027	24.5769	35
278.8020	24.5527	35
278.7783	24.6265	35
278.7689	24.6545	35
278.8708	24.6706	35
278.8759	24.6546	35
279.9112	26.2307	36
279.9232	26.2981	36
279.9382	26.2952	36
279.9614	26.2798	36
279.9719	26.2584	36
279.9682	26.1416	36
279.8982	26.1407	36
279.9112	26.2307	36
278.7783	24.6265	37
278.8020	24.5527	37
278.7033	24.5240	37
278.6770	24.6080	37
278.6745	24.6218	37
278.7281	24.6318	37
278.7448	24.6476	37
278.7689	24.6545	37
278.7783	24.6265	37
278.6770	24.6080	38
278.7033	24.5240	38
278.6008	24.4970	38
278.5681	24.6027	38
278.6023	24.5952	38
278.6745	24.6218	38
278.6770	24.6080	38
278.5681	24.6027	39
278.6008	24.4970	39
278.4955	24.4753	39
278.4707	24.5524	39
278.4973	24.5839	39
278.4807	24.6189	39
278.4891	24.6186	39
278.5009	24.5990	39
278.5346	24.6126	39
278.5681	24.6027	39
278.4955	24.4753	40
278.3953	24.4447	40
278.3740	24.5295	40
278.4707	24.5524	40
278.4955	24.4753	40
278.4807	24.6194	41
278.4807	24.6189	41
278.4973	24.5839	41
278.4707	24.5524	41
278.3740	24.5295	41
278.3810	24.5851	41
278.3987	24.5869	41
278.3987	24.5866	41
278.3990	24.5866	41
278.3987	24.5869	41
278.4295	24.6035	41
278.4375	24.6038	41
278.4449	24.6114	41
278.4529	24.6120	41
278.4537	24.6155	41
278.4585	24.6150	41
278.4582	24.6150	41
278.4582	24.6147	41
278.4585	24.6150	41
278.4807	24.6194	41
278.2757	24.5113	42
278.3740	24.5295	42
278.3953	24.4447	42
278.2969	24.4264	42
278.2757	24.5113	42
278.3740	24.5295	43
278.2757	24.5113	43
278.2756	24.5611	43
278.3561	24.5748	43
278.3632	24.5832	43
278.3810	24.5851	43
278.3740	24.5295	43
278.2969	24.4264	44
278.2419	24.4153	44
278.2041	24.4191	44
278.1686	24.4050	44
278.1512	24.4946	44
278.2757	24.5113	44
278.2969	24.4264	44
278.2756	24.5611	45
278.2757	24.5113	45
278.1512	24.4946	45
278.1331	24.5130	45
278.1291	24.5370	45
278.1616	24.5329	45
278.1837	24.5201	45
278.2125	24.5445	45
278.2756	24.5611	45
278.0311	24.4672	46
278.0281	24.4990	46
278.0454	24.4983	46
278.0827	24.5249	46
278.1291	24.5370	46
278.1331	24.5130	46
278.1512	24.4946	46
278.1686	24.4050	46
278.0772	24.3871	46
278.0381	24.3876	46
278.0311	24.4672	46
278.0281	24.4990	47
278.0311	24.4672	47
278.0381	24.3876	47
277.9722	24.3843	47
277.9381	24.4037	47
277.9247	24.4035	47
277.9500	24.4953	47
277.9809	24.4919	47
278.0281	24.4990	47
277.8115	24.4974	48
277.8034	24.5074	48
277.9500	24.4953	48
277.9247	24.4035	48
277.8120	24.4110	48
277.8115	24.4974	48
277.8034	24.5074	49
277.8115	24.4974	49
277.8120	24.4110	49
277.7711	24.4149	49
277.6821	24.3995	49
277.6665	24.5012	49
277.8034	24.5074	49
277.6821	24.3995	50
277.5975	24.3933	50
277.5618	24.4125	50
277.5466	24.4380	50
277.5515	24.4671	50
277.5741	24.4898	50
277.6665	24.5012	50
277.6821	24.3995	50
